ply
format ascii 1.0
element vertex 643
property float x
property float y
property float z
property float nx
property float ny
property float nz
property uchar red
property uchar green
property uchar blue
end_header
23.774915 -196.208758 -833.000000 0.408248 0.408248 0.816497 128 128 128
25.228964 -196.208758 -833.000000 -0.000000 -0.000000 1.000000 128 128 128
26.683014 -196.208758 -833.000000 -0.000000 0.447214 0.894427 128 128 128
28.103286 -195.973214 -832.000000 0.408248 0.408248 0.816497 128 128 128
29.555590 -195.973214 -832.000000 -0.000000 -0.000000 1.000000 128 128 128
31.007894 -195.973214 -832.000000 -0.000000 -0.000000 1.000000 128 128 128
32.460198 -195.973214 -832.000000 0.447214 -0.000000 0.894427 128 128 128
33.912502 -195.973214 -832.000000 0.447214 -0.000000 0.894427 128 128 128
35.364806 -195.973214 -832.000000 0.408248 0.408248 0.816497 128 128 128
36.772859 -195.737669 -831.000000 0.408248 0.408248 0.816497 128 128 128
38.223418 -195.737669 -831.000000 -0.000000 -0.000000 1.000000 128 128 128
39.673976 -195.737669 -831.000000 -0.000000 -0.000000 1.000000 128 128 128
41.124535 -195.737669 -831.000000 -0.000000 -0.000000 1.000000 128 128 128
42.575093 -195.737669 -831.000000 -0.000000 -0.000000 1.000000 128 128 128
44.025652 -195.737669 -831.000000 -0.000000 -0.000000 1.000000 128 128 128
45.476210 -195.737669 -831.000000 -0.000000 -0.000000 1.000000 128 128 128
46.926769 -195.737669 -831.000000 0.408248 -0.408248 0.816497 128 128 128
48.435543 -195.973214 -832.000000 0.408248 -0.408248 0.816497 128 128 128
49.887847 -195.973214 -832.000000 0.408248 -0.408248 0.816497 128 128 128
51.401858 -196.208758 -833.000000 0.333333 -0.666667 0.666667 128 128 128
52.919360 -196.444303 -834.000000 -0.000000 -0.707107 0.707107 128 128 128
54.440354 -196.679848 -835.000000 0.408248 -0.408248 0.816497 128 128 128
55.897895 -196.679848 -835.000000 0.408248 -0.408248 0.816497 128 128 128
57.424124 -196.915393 -836.000000 -0.000000 -0.707107 0.707107 128 128 128
58.953846 -197.150937 -837.000000 0.408248 -0.408248 0.816497 128 128 128
60.414877 -197.150937 -837.000000 0.447214 -0.000000 0.894427 128 128 128
61.875909 -197.150937 -837.000000 -0.000000 0.999997 0.002389 128 128 128
87.150174 -208.692629 -886.000000 -0.004515 -0.999987 0.002257 128 128 128
88.696738 -208.692629 -886.000000 -0.872872 0.218218 0.436436 128 128 128
90.141447 -208.457084 -885.000000 -0.801784 0.267261 0.534522 128 128 128
91.686266 -208.457084 -885.000000 -0.666667 0.333333 0.666667 128 128 128
93.125739 -208.221540 -884.000000 -0.801784 0.267261 0.534522 128 128 128
94.668812 -208.221540 -884.000000 -0.832050 -0.000000 0.554700 128 128 128
96.211885 -208.221540 -884.000000 -0.707107 -0.000000 0.707107 128 128 128
97.754958 -208.221540 -884.000000 -0.447214 -0.000000 0.894427 128 128 128
99.298031 -208.221540 -884.000000 -0.447214 -0.000000 0.894427 128 128 128
100.841104 -208.221540 -884.000000 -0.000000 -0.000000 1.000000 128 128 128
102.384178 -208.221540 -884.000000 -0.408248 -0.408248 0.816497 128 128 128
104.044815 -208.457084 -885.000000 -0.000000 -0.447214 0.894427 128 128 128
105.589634 -208.457084 -885.000000 -0.408248 -0.408248 0.816497 128 128 128
107.255509 -208.692629 -886.000000 -0.000000 -0.447214 0.894427 128 128 128
108.802073 -208.692629 -886.000000 -0.000000 -0.000000 1.000000 128 128 128
110.348637 -208.692629 -886.000000 -0.000000 0.999997 0.002257 128 128 128
6.447832 -201.541759 -849.000000 0.707937 -0.706273 0.001664 128 128 128
7.929811 -201.541759 -849.000000 0.333333 0.666667 0.666667 128 128 128
9.389618 -201.066985 -847.000000 0.218218 0.872872 0.436436 128 128 128
10.842443 -200.592210 -845.000000 -0.000000 0.832050 0.554700 128 128 128
12.302863 -200.354823 -844.000000 0.267261 0.801784 0.534522 128 128 128
13.743469 -199.880048 -842.000000 -0.000000 0.832050 0.554700 128 128 128
15.195160 -199.642661 -841.000000 -0.000000 0.832050 0.554700 128 128 128
16.623547 -199.167887 -839.000000 -0.000000 0.894427 0.447214 128 128 128
18.044952 -198.693112 -837.000000 -0.000000 0.832050 0.554700 128 128 128
19.482680 -198.455725 -836.000000 -0.000000 0.707107 0.707107 128 128 128
20.916916 -198.218338 -835.000000 0.333333 0.666667 0.666667 128 128 128
22.347661 -197.980951 -834.000000 -0.000000 0.707107 0.707107 128 128 128
23.774915 -197.743563 -833.000000 -0.000000 0.447214 0.894427 128 128 128
25.228964 -197.743563 -833.000000 0.447214 -0.000000 0.894427 128 128 128
26.683014 -197.743563 -833.000000 0.408248 0.408248 0.816497 128 128 128
28.103286 -197.506176 -832.000000 -0.000000 0.447214 0.894427 128 128 128
29.555590 -197.506176 -832.000000 -0.000000 -0.000000 1.000000 128 128 128
31.007894 -197.506176 -832.000000 0.408248 0.408248 0.816497 128 128 128
32.421183 -197.268789 -831.000000 0.408248 0.408248 0.816497 128 128 128
33.871742 -197.268789 -831.000000 0.447214 -0.000000 0.894427 128 128 128
35.322300 -197.268789 -831.000000 0.447214 -0.000000 0.894427 128 128 128
36.772859 -197.268789 -831.000000 -0.000000 -0.000000 1.000000 128 128 128
38.223418 -197.268789 -831.000000 -0.000000 -0.000000 1.000000 128 128 128
39.673976 -197.268789 -831.000000 -0.000000 -0.000000 1.000000 128 128 128
41.124535 -197.268789 -831.000000 -0.000000 -0.000000 1.000000 128 128 128
42.575093 -197.268789 -831.000000 -0.000000 -0.000000 1.000000 128 128 128
44.025652 -197.268789 -831.000000 -0.000000 -0.000000 1.000000 128 128 128
45.476210 -197.268789 -831.000000 -0.000000 -0.000000 1.000000 128 128 128
46.926769 -197.268789 -831.000000 -0.000000 -0.000000 1.000000 128 128 128
48.377327 -197.268789 -831.000000 0.408248 -0.408248 0.816497 128 128 128
49.887847 -197.506176 -832.000000 -0.000000 -0.707107 0.707107 128 128 128
51.401858 -197.743563 -833.000000 0.333333 -0.666667 0.666667 128 128 128
52.919360 -197.980951 -834.000000 0.408248 -0.408248 0.816497 128 128 128
54.375156 -197.980951 -834.000000 0.408248 -0.408248 0.816497 128 128 128
55.897895 -198.218338 -835.000000 -0.000000 -0.707107 0.707107 128 128 128
57.424124 -198.455725 -836.000000 0.408248 -0.408248 0.816497 128 128 128
58.883411 -198.455725 -836.000000 0.447214 -0.000000 0.894427 128 128 128
60.342697 -198.455725 -836.000000 0.408248 -0.408248 0.816497 128 128 128
61.875909 -198.693112 -837.000000 0.707528 0.706683 0.001691 128 128 128
87.346901 -210.799861 -888.000000 0.706308 -0.707903 0.001594 128 128 128
88.896956 -210.799861 -888.000000 -0.801784 0.267261 0.534522 128 128 128
90.345157 -210.562474 -887.000000 -0.816497 0.408248 0.408248 128 128 128
91.789866 -210.325087 -886.000000 -0.801784 0.267261 0.534522 128 128 128
93.336431 -210.325087 -886.000000 -0.832050 -0.000000 0.554700 128 128 128
94.882995 -210.325087 -886.000000 -0.666667 0.333333 0.666667 128 128 128
96.320722 -210.087699 -885.000000 -0.577350 0.577350 0.577350 128 128 128
97.754958 -209.850312 -884.000000 -0.408248 0.408248 0.816497 128 128 128
99.298031 -209.850312 -884.000000 -0.000000 -0.000000 1.000000 128 128 128
100.841104 -209.850312 -884.000000 -0.000000 -0.447214 0.894427 128 128 128
102.499997 -210.087699 -885.000000 -0.408248 -0.408248 0.816497 128 128 128
104.044815 -210.087699 -885.000000 -0.000000 -0.447214 0.894427 128 128 128
105.708944 -210.325087 -886.000000 -0.408248 -0.408248 0.816497 128 128 128
107.255509 -210.325087 -886.000000 -0.000000 -0.000000 1.000000 128 128 128
108.802073 -210.325087 -886.000000 -0.000000 -0.000000 1.000000 128 128 128
110.348637 -210.325087 -886.000000 -0.000000 0.999997 0.002257 128 128 128
7.911131 -202.627585 -847.000000 0.002364 -0.999994 0.002364 128 128 128
9.378532 -202.388355 -846.000000 0.577350 0.577350 0.577350 128 128 128
10.842443 -202.149125 -845.000000 -0.000000 0.832050 0.554700 128 128 128
12.288286 -201.670666 -843.000000 0.267261 0.801784 0.534522 128 128 128
13.743469 -201.431436 -842.000000 -0.000000 0.707107 0.707107 128 128 128
15.195160 -201.192206 -841.000000 -0.000000 0.832050 0.554700 128 128 128
16.623547 -200.713747 -839.000000 -0.000000 0.894427 0.447214 128 128 128
18.044952 -200.235287 -837.000000 -0.000000 0.832050 0.554700 128 128 128
19.482680 -199.996058 -836.000000 0.267261 0.801784 0.534522 128 128 128
20.891865 -199.517598 -834.000000 0.333333 0.666667 0.666667 128 128 128
22.347661 -199.517598 -834.000000 0.408248 0.408248 0.816497 128 128 128
23.774915 -199.278368 -833.000000 -0.000000 0.707107 0.707107 128 128 128
25.198677 -199.039139 -832.000000 0.408248 0.408248 0.816497 128 128 128
26.650982 -199.039139 -832.000000 0.447214 -0.000000 0.894427 128 128 128
28.103286 -199.039139 -832.000000 -0.000000 -0.000000 1.000000 128 128 128
29.555590 -199.039139 -832.000000 0.408248 0.408248 0.816497 128 128 128
30.970625 -198.799909 -831.000000 0.408248 0.408248 0.816497 128 128 128
32.421183 -198.799909 -831.000000 -0.000000 -0.000000 1.000000 128 128 128
33.871742 -198.799909 -831.000000 -0.000000 -0.000000 1.000000 128 128 128
35.322300 -198.799909 -831.000000 -0.000000 -0.000000 1.000000 128 128 128
36.772859 -198.799909 -831.000000 0.447214 -0.000000 0.894427 128 128 128
38.223418 -198.799909 -831.000000 0.447214 -0.000000 0.894427 128 128 128
39.673976 -198.799909 -831.000000 0.447214 -0.000000 0.894427 128 128 128
41.124535 -198.799909 -831.000000 0.447214 -0.000000 0.894427 128 128 128
42.575093 -198.799909 -831.000000 0.447214 -0.000000 0.894427 128 128 128
44.025652 -198.799909 -831.000000 -0.000000 -0.000000 1.000000 128 128 128
45.476210 -198.799909 -831.000000 -0.000000 -0.000000 1.000000 128 128 128
46.926769 -198.799909 -831.000000 -0.000000 -0.000000 1.000000 128 128 128
48.377327 -198.799909 -831.000000 -0.000000 -0.447214 0.894427 128 128 128
49.887847 -199.039139 -832.000000 -0.000000 -0.447214 0.894427 128 128 128
51.340151 -199.039139 -832.000000 0.408248 -0.408248 0.816497 128 128 128
52.855908 -199.278368 -833.000000 0.333333 -0.666667 0.666667 128 128 128
54.375156 -199.517598 -834.000000 -0.000000 -0.707107 0.707107 128 128 128
55.897895 -199.756828 -835.000000 -0.000000 -0.447214 0.894427 128 128 128
57.355435 -199.756828 -835.000000 0.408248 -0.408248 0.816497 128 128 128
58.883411 -199.996058 -836.000000 -0.000000 -0.447214 0.894427 128 128 128
60.342697 -199.996058 -836.000000 -0.000000 0.999997 0.002392 128 128 128
88.997065 -212.675233 -889.000000 -0.002250 -0.999995 0.002250 128 128 128
90.548866 -212.675233 -889.000000 -0.666667 0.333333 0.666667 128 128 128
91.997067 -212.436004 -888.000000 -0.727607 0.485071 0.485071 128 128 128
93.441776 -212.196774 -887.000000 -0.577350 0.577350 0.577350 128 128 128
94.882995 -211.957544 -886.000000 -0.408248 0.408248 0.816497 128 128 128
96.429559 -211.957544 -886.000000 -0.666667 0.333333 0.666667 128 128 128
97.865541 -211.718315 -885.000000 -0.577350 0.577350 0.577350 128 128 128
99.298031 -211.479085 -884.000000 -0.408248 0.408248 0.816497 128 128 128
100.841104 -211.479085 -884.000000 -0.408248 -0.408248 0.816497 128 128 128
102.499997 -211.718315 -885.000000 -0.000000 -0.447214 0.894427 128 128 128
104.044815 -211.718315 -885.000000 -0.000000 -0.447214 0.894427 128 128 128
105.708944 -211.957544 -886.000000 0.408248 -0.408248 0.816497 128 128 128
107.255509 -211.957544 -886.000000 -0.000000 -0.000000 1.000000 128 128 128
108.802073 -211.957544 -886.000000 -0.000000 -0.000000 1.000000 128 128 128
110.348637 -211.957544 -886.000000 -0.000000 0.999997 0.002257 128 128 128
7.911131 -204.188185 -847.000000 0.001183 -0.999996 0.002367 128 128 128
9.367447 -203.706040 -845.000000 0.333333 0.666667 0.666667 128 128 128
10.842443 -203.706040 -845.000000 0.333333 0.666667 0.666667 128 128 128
12.288286 -203.223896 -843.000000 -0.000000 0.832050 0.554700 128 128 128
13.743469 -202.982823 -842.000000 -0.000000 0.707107 0.707107 128 128 128
15.195160 -202.741751 -841.000000 0.267261 0.801784 0.534522 128 128 128
16.623547 -202.259607 -839.000000 -0.000000 0.894427 0.447214 128 128 128
18.044952 -201.777462 -837.000000 -0.000000 0.894427 0.447214 128 128 128
19.459375 -201.295318 -835.000000 0.267261 0.801784 0.534522 128 128 128
20.891865 -201.054246 -834.000000 -0.000000 0.707107 0.707107 128 128 128
22.320865 -200.813173 -833.000000 0.408248 0.408248 0.816497 128 128 128
23.774915 -200.813173 -833.000000 -0.000000 0.447214 0.894427 128 128 128
25.198677 -200.572101 -832.000000 -0.000000 0.447214 0.894427 128 128 128
26.650982 -200.572101 -832.000000 0.447214 -0.000000 0.894427 128 128 128
28.103286 -200.572101 -832.000000 0.408248 0.408248 0.816497 128 128 128
29.520066 -200.331029 -831.000000 0.408248 0.408248 0.816497 128 128 128
30.970625 -200.331029 -831.000000 -0.000000 -0.000000 1.000000 128 128 128
32.421183 -200.331029 -831.000000 -0.000000 -0.000000 1.000000 128 128 128
33.871742 -200.331029 -831.000000 -0.000000 -0.000000 1.000000 128 128 128
35.322300 -200.331029 -831.000000 0.408248 0.408248 0.816497 128 128 128
36.728608 -200.089957 -830.000000 0.408248 0.408248 0.816497 128 128 128
38.177421 -200.089957 -830.000000 0.447214 -0.000000 0.894427 128 128 128
39.626234 -200.089957 -830.000000 0.447214 -0.000000 0.894427 128 128 128
41.075047 -200.089957 -830.000000 0.447214 -0.000000 0.894427 128 128 128
42.523860 -200.089957 -830.000000 0.408248 -0.408248 0.816497 128 128 128
44.025652 -200.331029 -831.000000 0.408248 -0.408248 0.816497 128 128 128
45.476210 -200.331029 -831.000000 0.447214 -0.000000 0.894427 128 128 128
46.926769 -200.331029 -831.000000 -0.000000 -0.000000 1.000000 128 128 128
48.377327 -200.331029 -831.000000 -0.000000 -0.447214 0.894427 128 128 128
49.887847 -200.572101 -832.000000 0.408248 -0.408248 0.816497 128 128 128
51.340151 -200.572101 -832.000000 -0.000000 -0.447214 0.894427 128 128 128
52.855908 -200.813173 -833.000000 -0.000000 -0.707107 0.707107 128 128 128
54.375156 -201.054246 -834.000000 -0.000000 -0.707107 0.707107 128 128 128
55.897895 -201.295318 -835.000000 -0.000000 -0.447214 0.894427 128 128 128
57.355435 -201.295318 -835.000000 -0.000000 -0.447214 0.894427 128 128 128
58.883411 -201.536390 -836.000000 -0.000000 -0.447214 0.894427 128 128 128
60.342697 -201.536390 -836.000000 0.707106 0.707106 0.001692 128 128 128
89.097175 -214.554291 -890.000000 -0.001125 -0.999997 0.002250 128 128 128
90.548866 -214.313219 -889.000000 -0.408248 0.408248 0.816497 128 128 128
92.100667 -214.313219 -889.000000 -0.408248 0.408248 0.816497 128 128 128
93.547122 -214.072146 -888.000000 -0.577350 0.577350 0.577350 128 128 128
94.990086 -213.831074 -887.000000 -0.666667 0.333333 0.666667 128 128 128
96.538396 -213.831074 -887.000000 -0.408248 0.408248 0.816497 128 128 128
97.976123 -213.590002 -886.000000 -0.333333 0.666667 0.666667 128 128 128
99.410359 -213.348930 -885.000000 -0.408248 0.408248 0.816497 128 128 128
100.955178 -213.348930 -885.000000 -0.447214 -0.000000 0.894427 128 128 128
102.499997 -213.348930 -885.000000 -0.000000 -0.000000 1.000000 128 128 128
104.044815 -213.348930 -885.000000 -0.000000 -0.000000 1.000000 128 128 128
105.589634 -213.348930 -885.000000 0.408248 -0.408248 0.816497 128 128 128
107.255509 -213.590002 -886.000000 0.408248 -0.408248 0.816497 128 128 128
108.802073 -213.590002 -886.000000 -0.000000 -0.000000 1.000000 128 128 128
110.348637 -213.590002 -886.000000 -0.001129 0.999997 0.002257 128 128 128
7.901791 -205.505870 -846.000000 0.001183 -0.999996 0.002367 128 128 128
9.367447 -205.262955 -845.000000 -0.000000 0.707107 0.707107 128 128 128
10.829612 -205.020040 -844.000000 0.333333 0.666667 0.666667 128 128 128
12.288286 -204.777126 -843.000000 -0.000000 0.707107 0.707107 128 128 128
13.743469 -204.534211 -842.000000 -0.000000 0.832050 0.554700 128 128 128
15.177092 -204.048381 -840.000000 0.267261 0.801784 0.534522 128 128 128
16.623547 -203.805467 -839.000000 -0.000000 0.832050 0.554700 128 128 128
18.044952 -203.319637 -837.000000 -0.000000 0.894427 0.447214 128 128 128
19.459375 -202.833808 -835.000000 -0.267261 0.801784 0.534522 128 128 128
20.891865 -202.590893 -834.000000 -0.000000 0.707107 0.707107 128 128 128
22.320865 -202.347978 -833.000000 -0.000000 0.447214 0.894427 128 128 128
23.774915 -202.347978 -833.000000 -0.000000 0.447214 0.894427 128 128 128
25.198677 -202.105063 -832.000000 -0.000000 0.707107 0.707107 128 128 128
26.618949 -201.862149 -831.000000 0.408248 0.408248 0.816497 128 128 128
28.069508 -201.862149 -831.000000 0.447214 -0.000000 0.894427 128 128 128
29.520066 -201.862149 -831.000000 -0.000000 -0.000000 1.000000 128 128 128
30.970625 -201.862149 -831.000000 -0.000000 -0.000000 1.000000 128 128 128
32.421183 -201.862149 -831.000000 0.447214 -0.000000 0.894427 128 128 128
33.871742 -201.862149 -831.000000 0.408248 0.408248 0.816497 128 128 128
35.279795 -201.619234 -830.000000 0.408248 0.408248 0.816497 128 128 128
36.728608 -201.619234 -830.000000 -0.000000 -0.000000 1.000000 128 128 128
38.177421 -201.619234 -830.000000 -0.000000 -0.000000 1.000000 128 128 128
39.626234 -201.619234 -830.000000 -0.000000 -0.000000 1.000000 128 128 128
41.075047 -201.619234 -830.000000 -0.000000 -0.000000 1.000000 128 128 128
42.523860 -201.619234 -830.000000 -0.000000 -0.000000 1.000000 128 128 128
43.972673 -201.619234 -830.000000 0.447214 -0.000000 0.894427 128 128 128
45.421486 -201.619234 -830.000000 0.408248 -0.408248 0.816497 128 128 128
46.926769 -201.862149 -831.000000 -0.000000 -0.447214 0.894427 128 128 128
48.377327 -201.862149 -831.000000 -0.000000 -0.000000 1.000000 128 128 128
49.827886 -201.862149 -831.000000 -0.000000 -0.447214 0.894427 128 128 128
51.340151 -202.105063 -832.000000 -0.000000 -0.707107 0.707107 128 128 128
52.855908 -202.347978 -833.000000 -0.000000 -0.707107 0.707107 128 128 128
54.375156 -202.590893 -834.000000 -0.000000 -0.707107 0.707107 128 128 128
55.897895 -202.833808 -835.000000 -0.000000 -0.447214 0.894427 128 128 128
57.355435 -202.833808 -835.000000 -0.000000 -0.447214 0.894427 128 128 128
58.883411 -203.076722 -836.000000 -0.000000 0.999997 0.002395 128 128 128
89.097175 -216.194118 -890.000000 -0.001124 -0.999997 0.002247 128 128 128
90.650721 -216.194118 -890.000000 -0.408248 0.408248 0.816497 128 128 128
92.100667 -215.951204 -889.000000 -0.000000 0.447214 0.894427 128 128 128
93.652468 -215.951204 -889.000000 -0.408248 0.408248 0.816497 128 128 128
95.097178 -215.708289 -888.000000 -0.333333 0.666667 0.666667 128 128 128
96.538396 -215.465374 -887.000000 -0.000000 0.707107 0.707107 128 128 128
97.976123 -215.222459 -886.000000 0.333333 0.666667 0.666667 128 128 128
99.410359 -214.979545 -885.000000 -0.000000 0.447214 0.894427 128 128 128
100.955178 -214.979545 -885.000000 -0.000000 -0.000000 1.000000 128 128 128
102.499997 -214.979545 -885.000000 -0.000000 -0.000000 1.000000 128 128 128
104.044815 -214.979545 -885.000000 -0.000000 -0.000000 1.000000 128 128 128
105.589634 -214.979545 -885.000000 -0.000000 -0.000000 1.000000 128 128 128
107.134453 -214.979545 -885.000000 0.408248 -0.408248 0.816497 128 128 128
108.802073 -215.222459 -886.000000 -0.000000 -0.707107 0.707107 128 128 128
110.473184 -215.465374 -887.000000 0.707106 0.707106 0.001596 128 128 128
7.901791 -207.064627 -846.000000 -0.000000 -0.999997 0.002367 128 128 128
9.367447 -206.819870 -845.000000 -0.000000 0.707107 0.707107 128 128 128
10.829612 -206.575113 -844.000000 -0.000000 0.707107 0.707107 128 128 128
12.288286 -206.330356 -843.000000 -0.000000 0.707107 0.707107 128 128 128
13.743469 -206.085598 -842.000000 -0.000000 0.832050 0.554700 128 128 128
15.177092 -205.596084 -840.000000 -0.267261 0.801784 0.534522 128 128 128
16.623547 -205.351327 -839.000000 -0.000000 0.832050 0.554700 128 128 128
18.044952 -204.861812 -837.000000 -0.000000 0.832050 0.554700 128 128 128
19.482680 -204.617055 -836.000000 -0.267261 0.801784 0.534522 128 128 128
20.891865 -204.127540 -834.000000 -0.000000 0.832050 0.554700 128 128 128
22.320865 -203.882783 -833.000000 -0.000000 0.447214 0.894427 128 128 128
23.774915 -203.882783 -833.000000 -0.000000 0.447214 0.894427 128 128 128
25.198677 -203.638026 -832.000000 -0.000000 0.707107 0.707107 128 128 128
26.618949 -203.393269 -831.000000 -0.000000 0.447214 0.894427 128 128 128
28.069508 -203.393269 -831.000000 -0.000000 -0.000000 1.000000 128 128 128
29.520066 -203.393269 -831.000000 -0.000000 -0.000000 1.000000 128 128 128
30.970625 -203.393269 -831.000000 0.408248 0.408248 0.816497 128 128 128
32.382169 -203.148511 -830.000000 0.408248 0.408248 0.816497 128 128 128
33.830982 -203.148511 -830.000000 0.447214 -0.000000 0.894427 128 128 128
35.279795 -203.148511 -830.000000 -0.000000 -0.000000 1.000000 128 128 128
36.728608 -203.148511 -830.000000 0.447214 -0.000000 0.894427 128 128 128
38.177421 -203.148511 -830.000000 0.447214 -0.000000 0.894427 128 128 128
39.626234 -203.148511 -830.000000 0.447214 -0.000000 0.894427 128 128 128
41.075047 -203.148511 -830.000000 -0.000000 -0.000000 1.000000 128 128 128
42.523860 -203.148511 -830.000000 -0.000000 -0.000000 1.000000 128 128 128
43.972673 -203.148511 -830.000000 -0.000000 -0.000000 1.000000 128 128 128
45.421486 -203.148511 -830.000000 -0.000000 -0.447214 0.894427 128 128 128
46.926769 -203.393269 -831.000000 -0.000000 -0.447214 0.894427 128 128 128
48.377327 -203.393269 -831.000000 -0.000000 -0.447214 0.894427 128 128 128
49.887847 -203.638026 -832.000000 -0.408248 -0.408248 0.816497 128 128 128
51.340151 -203.638026 -832.000000 -0.000000 -0.447214 0.894427 128 128 128
52.855908 -203.882783 -833.000000 -0.333333 -0.666667 0.666667 128 128 128
54.375156 -204.127540 -834.000000 -0.000000 -0.707107 0.707107 128 128 128
55.897895 -204.372298 -835.000000 -0.000000 -0.447214 0.894427 128 128 128
57.355435 -204.372298 -835.000000 -0.000000 -0.447214 0.894427 128 128 128
58.883411 -204.617055 -836.000000 -0.001198 0.999996 0.002395 128 128 128
87.641992 -218.078703 -891.000000 -0.707106 -0.707106 0.001587 128 128 128
89.197284 -218.078703 -891.000000 -0.000000 0.447214 0.894427 128 128 128
90.650721 -217.833946 -890.000000 0.333333 0.666667 0.666667 128 128 128
92.100667 -217.589189 -889.000000 -0.000000 0.447214 0.894427 128 128 128
93.652468 -217.589189 -889.000000 0.408248 0.408248 0.816497 128 128 128
95.097178 -217.344432 -888.000000 0.333333 0.666667 0.666667 128 128 128
96.538396 -217.099674 -887.000000 0.267261 0.801784 0.534522 128 128 128
97.865541 -216.610160 -885.000000 0.333333 0.666667 0.666667 128 128 128
99.410359 -216.610160 -885.000000 -0.000000 -0.000000 1.000000 128 128 128
100.955178 -216.610160 -885.000000 0.447214 -0.000000 0.894427 128 128 128
102.499997 -216.610160 -885.000000 -0.000000 -0.000000 1.000000 128 128 128
104.044815 -216.610160 -885.000000 -0.000000 -0.000000 1.000000 128 128 128
105.589634 -216.610160 -885.000000 -0.000000 -0.000000 1.000000 128 128 128
107.134453 -216.610160 -885.000000 -0.000000 -0.447214 0.894427 128 128 128
108.802073 -216.854917 -886.000000 -0.000000 0.999997 0.002260 128 128 128
7.901791 -208.623385 -846.000000 0.707524 -0.706688 0.001673 128 128 128
9.367447 -208.376785 -845.000000 -0.000000 0.707107 0.707107 128 128 128
10.829612 -208.130185 -844.000000 -0.000000 0.707107 0.707107 128 128 128
12.288286 -207.883586 -843.000000 0.333333 0.666667 0.666667 128 128 128
13.743469 -207.636986 -842.000000 -0.000000 0.707107 0.707107 128 128 128
15.195160 -207.390386 -841.000000 -0.000000 0.832050 0.554700 128 128 128
16.623547 -206.897187 -839.000000 -0.000000 0.894427 0.447214 128 128 128
18.044952 -206.403987 -837.000000 -0.000000 0.832050 0.554700 128 128 128
19.482680 -206.157387 -836.000000 -0.000000 0.832050 0.554700 128 128 128
20.891865 -205.664188 -834.000000 -0.000000 0.832050 0.554700 128 128 128
22.320865 -205.417588 -833.000000 -0.000000 0.447214 0.894427 128 128 128
23.774915 -205.417588 -833.000000 0.408248 0.408248 0.816497 128 128 128
25.198677 -205.170988 -832.000000 -0.000000 0.707107 0.707107 128 128 128
26.618949 -204.924389 -831.000000 -0.000000 0.447214 0.894427 128 128 128
28.069508 -204.924389 -831.000000 -0.000000 -0.000000 1.000000 128 128 128
29.520066 -204.924389 -831.000000 -0.000000 0.447214 0.894427 128 128 128
30.933356 -204.677789 -830.000000 0.408248 0.408248 0.816497 128 128 128
32.382169 -204.677789 -830.000000 -0.000000 -0.000000 1.000000 128 128 128
33.830982 -204.677789 -830.000000 -0.000000 -0.000000 1.000000 128 128 128
35.279795 -204.677789 -830.000000 0.408248 0.408248 0.816497 128 128 128
36.684356 -204.431189 -829.000000 0.408248 0.408248 0.816497 128 128 128
38.131424 -204.431189 -829.000000 0.447214 -0.000000 0.894427 128 128 128
39.578491 -204.431189 -829.000000 0.408248 -0.408248 0.816497 128 128 128
41.075047 -204.677789 -830.000000 0.408248 -0.408248 0.816497 128 128 128
42.523860 -204.677789 -830.000000 -0.000000 -0.000000 1.000000 128 128 128
43.972673 -204.677789 -830.000000 -0.000000 -0.000000 1.000000 128 128 128
45.421486 -204.677789 -830.000000 -0.000000 -0.447214 0.894427 128 128 128
46.926769 -204.924389 -831.000000 -0.000000 -0.447214 0.894427 128 128 128
48.377327 -204.924389 -831.000000 -0.000000 -0.447214 0.894427 128 128 128
49.887847 -205.170988 -832.000000 -0.000000 -0.447214 0.894427 128 128 128
51.340151 -205.170988 -832.000000 -0.333333 -0.666667 0.666667 128 128 128
52.919360 -205.664188 -834.000000 -0.333333 -0.666667 0.666667 128 128 128
54.375156 -205.664188 -834.000000 -0.000000 -0.447214 0.894427 128 128 128
55.897895 -205.910788 -835.000000 -0.000000 -0.447214 0.894427 128 128 128
57.355435 -205.910788 -835.000000 -0.333333 -0.666667 0.666667 128 128 128
58.953846 -206.403987 -837.000000 0.707529 0.706683 0.001693 128 128 128
87.641992 -219.720373 -891.000000 0.001124 -0.999997 0.002247 128 128 128
89.097175 -219.473774 -890.000000 0.577350 0.577350 0.577350 128 128 128
90.548866 -219.227174 -889.000000 0.408248 0.408248 0.816497 128 128 128
92.100667 -219.227174 -889.000000 0.408248 0.408248 0.816497 128 128 128
93.547122 -218.980574 -888.000000 0.577350 0.577350 0.577350 128 128 128
94.990086 -218.733974 -887.000000 0.333333 0.666667 0.666667 128 128 128
96.429559 -218.487375 -886.000000 0.333333 0.666667 0.666667 128 128 128
97.865541 -218.240775 -885.000000 -0.000000 0.447214 0.894427 128 128 128
99.410359 -218.240775 -885.000000 0.408248 0.408248 0.816497 128 128 128
100.841104 -217.994175 -884.000000 0.447214 -0.000000 0.894427 128 128 128
102.499997 -218.240775 -885.000000 0.408248 -0.408248 0.816497 128 128 128
104.044815 -218.240775 -885.000000 -0.000000 -0.000000 1.000000 128 128 128
105.589634 -218.240775 -885.000000 -0.000000 -0.000000 1.000000 128 128 128
107.134453 -218.240775 -885.000000 -0.000000 -0.447214 0.894427 128 128 128
108.802073 -218.487375 -886.000000 -0.001130 0.999997 0.002260 128 128 128
9.367447 -209.933700 -845.000000 -0.001185 -0.999996 0.002370 128 128 128
10.829612 -209.685258 -844.000000 -0.000000 0.832050 0.554700 128 128 128
12.273709 -209.188373 -842.000000 -0.000000 0.707107 0.707107 128 128 128
13.743469 -209.188373 -842.000000 -0.000000 0.707107 0.707107 128 128 128
15.177092 -208.691489 -840.000000 -0.000000 0.832050 0.554700 128 128 128
16.623547 -208.443047 -839.000000 -0.000000 0.832050 0.554700 128 128 128
18.044952 -207.946162 -837.000000 -0.267261 0.801784 0.534522 128 128 128
19.482680 -207.697720 -836.000000 -0.000000 0.832050 0.554700 128 128 128
20.891865 -207.200835 -834.000000 -0.267261 0.801784 0.534522 128 128 128
22.320865 -206.952393 -833.000000 -0.000000 0.707107 0.707107 128 128 128
23.746373 -206.703951 -832.000000 -0.000000 0.447214 0.894427 128 128 128
25.198677 -206.703951 -832.000000 -0.000000 0.447214 0.894427 128 128 128
26.618949 -206.455509 -831.000000 -0.000000 0.447214 0.894427 128 128 128
28.069508 -206.455509 -831.000000 -0.000000 -0.000000 1.000000 128 128 128
29.520066 -206.455509 -831.000000 -0.000000 0.447214 0.894427 128 128 128
30.933356 -206.207066 -830.000000 -0.000000 0.447214 0.894427 128 128 128
32.382169 -206.207066 -830.000000 -0.000000 -0.000000 1.000000 128 128 128
33.830982 -206.207066 -830.000000 0.408248 0.408248 0.816497 128 128 128
35.237289 -205.958624 -829.000000 0.408248 0.408248 0.816497 128 128 128
36.684356 -205.958624 -829.000000 -0.000000 -0.000000 1.000000 128 128 128
38.131424 -205.958624 -829.000000 -0.000000 -0.000000 1.000000 128 128 128
39.578491 -205.958624 -829.000000 -0.000000 -0.000000 1.000000 128 128 128
41.025559 -205.958624 -829.000000 0.408248 -0.408248 0.816497 128 128 128
42.523860 -206.207066 -830.000000 -0.000000 -0.447214 0.894427 128 128 128
43.972673 -206.207066 -830.000000 -0.000000 -0.000000 1.000000 128 128 128
45.421486 -206.207066 -830.000000 -0.000000 -0.447214 0.894427 128 128 128
46.926769 -206.455509 -831.000000 -0.000000 -0.447214 0.894427 128 128 128
48.377327 -206.455509 -831.000000 -0.000000 -0.447214 0.894427 128 128 128
49.887847 -206.703951 -832.000000 -0.000000 -0.707107 0.707107 128 128 128
51.401858 -206.952393 -833.000000 -0.333333 -0.666667 0.666667 128 128 128
52.919360 -207.200835 -834.000000 -0.000000 -0.447214 0.894427 128 128 128
54.375156 -207.200835 -834.000000 -0.408248 -0.408248 0.816497 128 128 128
55.897895 -207.449278 -835.000000 -0.333333 -0.666667 0.666667 128 128 128
57.424124 -207.697720 -836.000000 -0.001198 0.999996 0.002395 128 128 128
86.086700 -221.362043 -891.000000 -0.706708 -0.707503 0.001590 128 128 128
87.543628 -221.113601 -890.000000 0.577350 0.577350 0.577350 128 128 128
88.997065 -220.865159 -889.000000 0.666667 0.333333 0.666667 128 128 128
90.548866 -220.865159 -889.000000 0.408248 0.408248 0.816497 128 128 128
91.997067 -220.616717 -888.000000 0.333333 0.666667 0.666667 128 128 128
93.441776 -220.368274 -887.000000 0.408248 0.408248 0.816497 128 128 128
94.990086 -220.368274 -887.000000 0.408248 0.408248 0.816497 128 128 128
96.429559 -220.119832 -886.000000 0.333333 0.666667 0.666667 128 128 128
97.865541 -219.871390 -885.000000 0.333333 0.666667 0.666667 128 128 128
99.298031 -219.622948 -884.000000 0.408248 0.408248 0.816497 128 128 128
100.841104 -219.622948 -884.000000 -0.000000 -0.000000 1.000000 128 128 128
102.384178 -219.622948 -884.000000 0.408248 -0.408248 0.816497 128 128 128
104.044815 -219.871390 -885.000000 -0.000000 -0.447214 0.894427 128 128 128
105.589634 -219.871390 -885.000000 -0.000000 -0.000000 1.000000 128 128 128
107.134453 -219.871390 -885.000000 -0.333333 -0.666667 0.666667 128 128 128
108.924874 -220.368274 -887.000000 -0.002260 0.999995 0.002260 128 128 128
9.378532 -211.740900 -846.000000 -0.001185 -0.999996 0.002370 128 128 128
10.829612 -211.240330 -844.000000 -0.267261 0.801784 0.534522 128 128 128
12.288286 -210.990045 -843.000000 -0.333333 0.666667 0.666667 128 128 128
13.743469 -210.739761 -842.000000 -0.000000 0.707107 0.707107 128 128 128
15.195160 -210.489476 -841.000000 -0.267261 0.801784 0.534522 128 128 128
16.623547 -209.988906 -839.000000 -0.000000 0.832050 0.554700 128 128 128
18.066511 -209.738622 -838.000000 -0.267261 0.801784 0.534522 128 128 128
19.482680 -209.238052 -836.000000 -0.000000 0.832050 0.554700 128 128 128
20.916916 -208.987767 -835.000000 -0.267261 0.801784 0.534522 128 128 128
22.320865 -208.487198 -833.000000 -0.000000 0.707107 0.707107 128 128 128
23.774915 -208.487198 -833.000000 -0.408248 0.408248 0.816497 128 128 128
25.198677 -208.236913 -832.000000 -0.000000 0.707107 0.707107 128 128 128
26.618949 -207.986628 -831.000000 -0.000000 0.447214 0.894427 128 128 128
28.069508 -207.986628 -831.000000 -0.000000 -0.000000 1.000000 128 128 128
29.520066 -207.986628 -831.000000 -0.000000 0.447214 0.894427 128 128 128
30.933356 -207.736344 -830.000000 -0.000000 0.447214 0.894427 128 128 128
32.382169 -207.736344 -830.000000 -0.000000 0.447214 0.894427 128 128 128
33.790221 -207.486059 -829.000000 0.408248 0.408248 0.816497 128 128 128
35.237289 -207.486059 -829.000000 -0.000000 -0.000000 1.000000 128 128 128
36.684356 -207.486059 -829.000000 -0.000000 -0.000000 1.000000 128 128 128
38.131424 -207.486059 -829.000000 -0.000000 -0.000000 1.000000 128 128 128
39.578491 -207.486059 -829.000000 -0.000000 -0.000000 1.000000 128 128 128
41.025559 -207.486059 -829.000000 -0.000000 -0.447214 0.894427 128 128 128
42.523860 -207.736344 -830.000000 -0.000000 -0.447214 0.894427 128 128 128
43.972673 -207.736344 -830.000000 -0.000000 -0.000000 1.000000 128 128 128
45.421486 -207.736344 -830.000000 -0.408248 -0.408248 0.816497 128 128 128
46.926769 -207.986628 -831.000000 -0.000000 -0.447214 0.894427 128 128 128
48.377327 -207.986628 -831.000000 -0.408248 -0.408248 0.816497 128 128 128
49.887847 -208.236913 -832.000000 -0.333333 -0.666667 0.666667 128 128 128
51.401858 -208.487198 -833.000000 -0.000000 -0.707107 0.707107 128 128 128
52.919360 -208.737483 -834.000000 -0.000000 -0.707107 0.707107 128 128 128
54.440354 -208.987767 -835.000000 -0.333333 -0.666667 0.666667 128 128 128
55.964838 -209.238052 -836.000000 -0.408248 -0.408248 0.816497 128 128 128
57.424124 -209.238052 -836.000000 0.707106 0.707106 0.001692 128 128 128
85.893464 -222.503144 -889.000000 0.004499 -0.999987 0.002250 128 128 128
87.445265 -222.503144 -889.000000 0.666667 0.333333 0.666667 128 128 128
88.896956 -222.252859 -888.000000 0.666667 0.333333 0.666667 128 128 128
90.447012 -222.252859 -888.000000 0.832050 -0.000000 0.554700 128 128 128
91.997067 -222.252859 -888.000000 0.666667 0.333333 0.666667 128 128 128
93.441776 -222.002575 -887.000000 0.577350 0.577350 0.577350 128 128 128
94.882995 -221.752290 -886.000000 0.727607 0.485071 0.485071 128 128 128
96.320722 -221.502005 -885.000000 0.577350 0.577350 0.577350 128 128 128
97.754958 -221.251720 -884.000000 0.666667 0.333333 0.666667 128 128 128
99.298031 -221.251720 -884.000000 0.447214 -0.000000 0.894427 128 128 128
100.841104 -221.251720 -884.000000 0.447214 -0.000000 0.894427 128 128 128
102.384178 -221.251720 -884.000000 -0.000000 -0.447214 0.894427 128 128 128
104.044815 -221.502005 -885.000000 0.408248 -0.408248 0.816497 128 128 128
105.589634 -221.502005 -885.000000 -0.000000 -0.447214 0.894427 128 128 128
107.255509 -221.752290 -886.000000 -0.267261 -0.801784 0.534522 128 128 128
109.047676 -222.252859 -888.000000 0.707505 0.706707 0.001595 128 128 128
9.378532 -213.299657 -846.000000 -0.001183 -0.999996 0.002367 128 128 128
10.842443 -213.047530 -845.000000 -0.267261 0.801784 0.534522 128 128 128
12.288286 -212.543275 -843.000000 -0.000000 0.832050 0.554700 128 128 128
13.743469 -212.291148 -842.000000 -0.000000 0.707107 0.707107 128 128 128
15.195160 -212.039021 -841.000000 -0.000000 0.832050 0.554700 128 128 128
16.623547 -211.534766 -839.000000 -0.000000 0.832050 0.554700 128 128 128
18.066511 -211.282639 -838.000000 -0.000000 0.832050 0.554700 128 128 128
19.482680 -210.778385 -836.000000 -0.000000 0.832050 0.554700 128 128 128
20.916916 -210.526257 -835.000000 -0.000000 0.832050 0.554700 128 128 128
22.320865 -210.022003 -833.000000 -0.000000 0.707107 0.707107 128 128 128
23.774915 -210.022003 -833.000000 -0.000000 0.447214 0.894427 128 128 128
25.198677 -209.769876 -832.000000 -0.000000 0.707107 0.707107 128 128 128
26.618949 -209.517748 -831.000000 -0.000000 0.447214 0.894427 128 128 128
28.069508 -209.517748 -831.000000 -0.000000 -0.000000 1.000000 128 128 128
29.520066 -209.517748 -831.000000 -0.000000 0.447214 0.894427 128 128 128
30.933356 -209.265621 -830.000000 -0.000000 0.447214 0.894427 128 128 128
32.382169 -209.265621 -830.000000 -0.000000 0.447214 0.894427 128 128 128
33.790221 -209.013494 -829.000000 -0.000000 0.447214 0.894427 128 128 128
35.237289 -209.013494 -829.000000 -0.000000 -0.000000 1.000000 128 128 128
36.684356 -209.013494 -829.000000 -0.000000 -0.000000 1.000000 128 128 128
38.131424 -209.013494 -829.000000 -0.000000 -0.000000 1.000000 128 128 128
39.578491 -209.013494 -829.000000 -0.000000 -0.000000 1.000000 128 128 128
41.025559 -209.013494 -829.000000 -0.408248 -0.408248 0.816497 128 128 128
42.523860 -209.265621 -830.000000 -0.000000 -0.447214 0.894427 128 128 128
43.972673 -209.265621 -830.000000 -0.408248 -0.408248 0.816497 128 128 128
45.476210 -209.517748 -831.000000 -0.408248 -0.408248 0.816497 128 128 128
46.926769 -209.517748 -831.000000 -0.408248 -0.408248 0.816497 128 128 128
48.435543 -209.769876 -832.000000 -0.333333 -0.666667 0.666667 128 128 128
49.947809 -210.022003 -833.000000 -0.408248 -0.408248 0.816497 128 128 128
51.401858 -210.022003 -833.000000 -0.408248 -0.408248 0.816497 128 128 128
52.919360 -210.274130 -834.000000 -0.333333 -0.666667 0.666667 128 128 128
54.440354 -210.526257 -835.000000 -0.000000 -0.707107 0.707107 128 128 128
55.964838 -210.778385 -836.000000 -0.000000 0.999997 0.002395 128 128 128
85.700228 -223.636875 -887.000000 0.003378 -0.999992 0.002252 128 128 128
87.346901 -223.889002 -888.000000 0.894427 -0.000000 0.447214 128 128 128
88.796847 -223.636875 -887.000000 0.727607 0.485071 0.485071 128 128 128
90.243302 -223.384747 -886.000000 0.872872 0.218218 0.436436 128 128 128
91.789866 -223.384747 -886.000000 0.872872 0.218218 0.436436 128 128 128
93.231085 -223.132620 -885.000000 0.816497 0.408248 0.408248 128 128 128
94.668812 -222.880493 -884.000000 0.801784 0.267261 0.534522 128 128 128
96.211885 -222.880493 -884.000000 0.666667 0.333333 0.666667 128 128 128
97.644376 -222.628366 -883.000000 0.408248 0.408248 0.816497 128 128 128
99.185703 -222.628366 -883.000000 0.447214 -0.000000 0.894427 128 128 128
100.727031 -222.628366 -883.000000 0.408248 -0.408248 0.816497 128 128 128
102.384178 -222.880493 -884.000000 0.408248 -0.408248 0.816497 128 128 128
103.927251 -222.880493 -884.000000 0.408248 -0.408248 0.816497 128 128 128
105.589634 -223.132620 -885.000000 -0.000000 -0.707107 0.707107 128 128 128
107.255509 -223.384747 -886.000000 -0.000000 0.999997 0.002260 128 128 128
9.389618 -215.112384 -847.000000 -0.001183 -0.999996 0.002367 128 128 128
10.842443 -214.604445 -845.000000 -0.218218 0.872872 0.436436 128 128 128
12.288286 -214.096505 -843.000000 -0.267261 0.801784 0.534522 128 128 128
13.743469 -213.842536 -842.000000 -0.000000 0.707107 0.707107 128 128 128
15.195160 -213.588566 -841.000000 -0.000000 0.832050 0.554700 128 128 128
16.623547 -213.080626 -839.000000 -0.267261 0.801784 0.534522 128 128 128
18.066511 -212.826657 -838.000000 -0.000000 0.832050 0.554700 128 128 128
19.482680 -212.318717 -836.000000 -0.267261 0.801784 0.534522 128 128 128
20.916916 -212.064747 -835.000000 -0.000000 0.832050 0.554700 128 128 128
22.320865 -211.556808 -833.000000 -0.333333 0.666667 0.666667 128 128 128
23.774915 -211.556808 -833.000000 -0.000000 0.447214 0.894427 128 128 128
25.198677 -211.302838 -832.000000 -0.000000 0.707107 0.707107 128 128 128
26.618949 -211.048868 -831.000000 -0.408248 0.408248 0.816497 128 128 128
28.069508 -211.048868 -831.000000 -0.000000 -0.000000 1.000000 128 128 128
29.520066 -211.048868 -831.000000 -0.000000 0.447214 0.894427 128 128 128
30.933356 -210.794899 -830.000000 -0.000000 0.447214 0.894427 128 128 128
32.382169 -210.794899 -830.000000 -0.000000 0.447214 0.894427 128 128 128
33.790221 -210.540929 -829.000000 -0.408248 0.408248 0.816497 128 128 128
35.237289 -210.540929 -829.000000 -0.000000 -0.000000 1.000000 128 128 128
36.684356 -210.540929 -829.000000 -0.000000 -0.000000 1.000000 128 128 128
38.131424 -210.540929 -829.000000 -0.447214 -0.000000 0.894427 128 128 128
39.578491 -210.540929 -829.000000 -0.408248 -0.408248 0.816497 128 128 128
41.075047 -210.794899 -830.000000 -0.408248 -0.408248 0.816497 128 128 128
42.523860 -210.794899 -830.000000 -0.000000 -0.447214 0.894427 128 128 128
44.025652 -211.048868 -831.000000 -0.408248 -0.408248 0.816497 128 128 128
45.476210 -211.048868 -831.000000 -0.000000 -0.447214 0.894427 128 128 128
46.983239 -211.302838 -832.000000 -0.408248 -0.408248 0.816497 128 128 128
48.435543 -211.302838 -832.000000 -0.408248 -0.408248 0.816497 128 128 128
49.947809 -211.556808 -833.000000 -0.333333 -0.666667 0.666667 128 128 128
51.463565 -211.810778 -834.000000 -0.577350 -0.577350 0.577350 128 128 128
52.982813 -212.064747 -835.000000 -0.408248 -0.408248 0.816497 128 128 128
54.440354 -212.064747 -835.000000 -0.408248 -0.408248 0.816497 128 128 128
55.964838 -212.318717 -836.000000 0.707529 0.706683 0.001693 128 128 128
83.962173 -224.763235 -885.000000 -0.706306 -0.707904 0.001598 128 128 128
85.603609 -225.017205 -886.000000 0.832050 -0.000000 0.554700 128 128 128
87.051810 -224.763235 -885.000000 0.912871 0.182574 0.365148 128 128 128
88.596629 -224.763235 -885.000000 0.872872 0.218218 0.436436 128 128 128
90.039593 -224.509265 -884.000000 0.801784 0.267261 0.534522 128 128 128
91.582666 -224.509265 -884.000000 0.872872 0.218218 0.436436 128 128 128
93.020393 -224.255296 -883.000000 0.801784 0.267261 0.534522 128 128 128
94.561721 -224.255296 -883.000000 0.707107 -0.000000 0.707107 128 128 128
96.103048 -224.255296 -883.000000 0.707107 -0.000000 0.707107 128 128 128
97.644376 -224.255296 -883.000000 0.447214 -0.000000 0.894427 128 128 128
99.185703 -224.255296 -883.000000 0.447214 -0.000000 0.894427 128 128 128
100.727031 -224.255296 -883.000000 0.447214 -0.000000 0.894427 128 128 128
102.268358 -224.255296 -883.000000 0.666667 -0.333333 0.666667 128 128 128
103.927251 -224.509265 -884.000000 0.333333 -0.666667 0.666667 128 128 128
105.589634 -224.763235 -885.000000 0.333333 -0.666667 0.666667 128 128 128
107.255509 -225.017205 -886.000000 0.707505 0.706707 0.001597 128 128 128
9.389618 -216.672984 -847.000000 -0.000000 -0.999997 0.002364 128 128 128
10.855274 -216.417172 -846.000000 -0.267261 0.801784 0.534522 128 128 128
12.302863 -215.905548 -844.000000 -0.218218 0.872872 0.436436 128 128 128
13.743469 -215.393923 -842.000000 -0.267261 0.801784 0.534522 128 128 128
15.195160 -215.138111 -841.000000 -0.000000 0.707107 0.707107 128 128 128
16.643361 -214.882299 -840.000000 -0.267261 0.801784 0.534522 128 128 128
18.066511 -214.370674 -838.000000 -0.000000 0.832050 0.554700 128 128 128
19.505984 -214.114862 -837.000000 -0.267261 0.801784 0.534522 128 128 128
20.916916 -213.603237 -835.000000 -0.000000 0.832050 0.554700 128 128 128
22.347661 -213.347425 -834.000000 -0.333333 0.666667 0.666667 128 128 128
23.774915 -213.091613 -833.000000 -0.000000 0.707107 0.707107 128 128 128
25.198677 -212.835801 -832.000000 -0.000000 0.447214 0.894427 128 128 128
26.650982 -212.835801 -832.000000 -0.000000 0.447214 0.894427 128 128 128
28.069508 -212.579988 -831.000000 -0.000000 0.447214 0.894427 128 128 128
29.520066 -212.579988 -831.000000 -0.000000 0.447214 0.894427 128 128 128
30.933356 -212.324176 -830.000000 -0.000000 0.447214 0.894427 128 128 128
32.382169 -212.324176 -830.000000 -0.000000 -0.000000 1.000000 128 128 128
33.830982 -212.324176 -830.000000 -0.408248 0.408248 0.816497 128 128 128
35.237289 -212.068364 -829.000000 -0.408248 0.408248 0.816497 128 128 128
36.684356 -212.068364 -829.000000 -0.408248 -0.408248 0.816497 128 128 128
38.177421 -212.324176 -830.000000 -0.408248 -0.408248 0.816497 128 128 128
39.626234 -212.324176 -830.000000 -0.447214 -0.000000 0.894427 128 128 128
41.075047 -212.324176 -830.000000 -0.000000 -0.000000 1.000000 128 128 128
42.523860 -212.324176 -830.000000 -0.408248 -0.408248 0.816497 128 128 128
44.025652 -212.579988 -831.000000 -0.000000 -0.447214 0.894427 128 128 128
45.476210 -212.579988 -831.000000 -0.408248 -0.408248 0.816497 128 128 128
46.983239 -212.835801 -832.000000 -0.000000 -0.707107 0.707107 128 128 128
48.493759 -213.091613 -833.000000 -0.333333 -0.666667 0.666667 128 128 128
50.007770 -213.347425 -834.000000 -0.333333 -0.666667 0.666667 128 128 128
51.525272 -213.603237 -835.000000 -0.408248 -0.408248 0.816497 128 128 128
52.982813 -213.603237 -835.000000 -0.408248 -0.408248 0.816497 128 128 128
54.505552 -213.859050 -836.000000 0.707106 0.707106 0.001694 128 128 128
83.867300 -226.138038 -884.000000 0.003394 -0.999992 0.002262 128 128 128
85.410373 -226.138038 -884.000000 0.872872 0.218218 0.436436 128 128 128
86.855083 -225.882226 -883.000000 0.801784 0.267261 0.534522 128 128 128
88.396410 -225.882226 -883.000000 0.832050 -0.000000 0.554700 128 128 128
89.937738 -225.882226 -883.000000 0.801784 0.267261 0.534522 128 128 128
91.375465 -225.626414 -882.000000 0.801784 0.267261 0.534522 128 128 128
92.915047 -225.626414 -882.000000 0.707107 -0.000000 0.707107 128 128 128
94.454629 -225.626414 -882.000000 0.707107 -0.000000 0.707107 128 128 128
95.994211 -225.626414 -882.000000 0.707107 -0.000000 0.707107 128 128 128
97.533793 -225.626414 -882.000000 0.447214 -0.000000 0.894427 128 128 128
99.073375 -225.626414 -882.000000 0.707107 -0.000000 0.707107 128 128 128
100.612957 -225.626414 -882.000000 0.447214 -0.000000 0.894427 128 128 128
102.152539 -225.626414 -882.000000 0.408248 -0.408248 0.816497 128 128 128
103.809686 -225.882226 -883.000000 0.577350 -0.577350 0.577350 128 128 128
105.470324 -226.138038 -884.000000 0.707905 0.706306 0.001600 128 128 128
9.389618 -218.233584 -847.000000 -0.000000 -0.999997 0.002364 128 128 128
10.855274 -217.975930 -846.000000 -0.000000 0.832050 0.554700 128 128 128
12.302863 -217.460620 -844.000000 -0.000000 0.832050 0.554700 128 128 128
13.759791 -217.202965 -843.000000 -0.267261 0.801784 0.534522 128 128 128
15.195160 -216.687656 -841.000000 -0.000000 0.832050 0.554700 128 128 128
16.643361 -216.430001 -840.000000 -0.000000 0.832050 0.554700 128 128 128
18.066511 -215.914692 -838.000000 -0.000000 0.832050 0.554700 128 128 128
19.505984 -215.657037 -837.000000 -0.000000 0.832050 0.554700 128 128 128
20.916916 -215.141727 -835.000000 -0.000000 0.832050 0.554700 128 128 128
22.347661 -214.884072 -834.000000 0.333333 0.666667 0.666667 128 128 128
23.774915 -214.626418 -833.000000 -0.000000 0.707107 0.707107 128 128 128
25.198677 -214.368763 -832.000000 -0.000000 0.707107 0.707107 128 128 128
26.618949 -214.111108 -831.000000 0.408248 0.408248 0.816497 128 128 128
28.069508 -214.111108 -831.000000 -0.000000 -0.000000 1.000000 128 128 128
29.520066 -214.111108 -831.000000 -0.000000 0.447214 0.894427 128 128 128
30.933356 -213.853453 -830.000000 -0.000000 0.447214 0.894427 128 128 128
32.382169 -213.853453 -830.000000 -0.000000 -0.000000 1.000000 128 128 128
33.830982 -213.853453 -830.000000 -0.000000 -0.000000 1.000000 128 128 128
35.279795 -213.853453 -830.000000 -0.447214 -0.000000 0.894427 128 128 128
36.728608 -213.853453 -830.000000 -0.447214 -0.000000 0.894427 128 128 128
38.177421 -213.853453 -830.000000 -0.000000 -0.000000 1.000000 128 128 128
39.626234 -213.853453 -830.000000 -0.000000 -0.000000 1.000000 128 128 128
41.075047 -213.853453 -830.000000 -0.408248 -0.408248 0.816497 128 128 128
42.575093 -214.111108 -831.000000 -0.408248 -0.408248 0.816497 128 128 128
44.025652 -214.111108 -831.000000 -0.000000 -0.447214 0.894427 128 128 128
45.530935 -214.368763 -832.000000 -0.408248 -0.408248 0.816497 128 128 128
46.983239 -214.368763 -832.000000 -0.408248 -0.408248 0.816497 128 128 128
48.493759 -214.626418 -833.000000 -0.333333 -0.666667 0.666667 128 128 128
50.007770 -214.884072 -834.000000 -0.333333 -0.666667 0.666667 128 128 128
51.525272 -215.141727 -835.000000 -0.333333 -0.666667 0.666667 128 128 128
53.046265 -215.399382 -836.000000 -0.002395 0.999994 0.002395 128 128 128
82.137973 -227.251501 -882.000000 -0.706705 -0.707507 0.001604 128 128 128
83.677555 -227.251501 -882.000000 0.832050 -0.000000 0.554700 128 128 128
85.217137 -227.251501 -882.000000 0.832050 -0.000000 0.554700 128 128 128
86.756719 -227.251501 -882.000000 0.707107 -0.000000 0.707107 128 128 128
88.296301 -227.251501 -882.000000 0.801784 0.267261 0.534522 128 128 128
89.734028 -226.993846 -881.000000 0.801784 0.267261 0.534522 128 128 128
91.271865 -226.993846 -881.000000 0.707107 -0.000000 0.707107 128 128 128
92.809701 -226.993846 -881.000000 0.707107 -0.000000 0.707107 128 128 128
94.347538 -226.993846 -881.000000 0.707107 -0.000000 0.707107 128 128 128
95.885374 -226.993846 -881.000000 0.666667 -0.333333 0.666667 128 128 128
97.533793 -227.251501 -882.000000 0.707107 -0.000000 0.707107 128 128 128
98.961047 -226.993846 -881.000000 0.447214 -0.000000 0.894427 128 128 128
100.612957 -227.251501 -882.000000 0.408248 -0.408248 0.816497 128 128 128
